ply
format ascii 1.0
element vertex 350
property float x
property float y
property float z
end_header
0.004357 0.051984 -0.016122
0.006347 0.040999 -0.009909
0.004455 0.052335 -0.015709
0.006676 0.041433 -0.009494
0.002944 0.026565 -0.013044
0.004536 0.049445 -0.017111
0.001842 0.061485 -0.020300
-0.007565 0.065044 -0.029304
0.000304 0.034978 -0.021202
0.002611 0.024045 -0.009596
0.002029 0.062905 -0.020070
0.002568 0.022231 -0.009201
0.000186 0.034785 -0.021480
0.005850 0.048939 -0.012151
0.007089 0.042149 -0.008848
-0.012730 0.065699 -0.034876
-0.012808 0.066495 -0.034543
-0.003993 0.061260 -0.024789
-0.003957 0.062390 -0.024517
-0.003947 0.060596 -0.025079
0.003045 0.029640 -0.014683
0.005274 0.039975 -0.011374
-0.003573 0.063847 -0.024269
-0.012700 0.067587 -0.034123
-0.051935 0.007968 -0.049315
-0.052591 0.007947 -0.050284
0.005193 0.039715 -0.011429
-0.051672 0.008001 -0.048745
-0.022070 0.056964 -0.046177
0.003375 0.019367 -0.004621
-0.022141 0.057455 -0.046357
0.002954 0.013779 -0.000379
-0.044463 0.036771 -0.055579
-0.054621 0.008234 -0.051835
-0.012379 0.063795 -0.036815
-0.005508 -0.002956 -0.023976
-0.005681 -0.003257 -0.024383
0.000461 0.038018 -0.018796
0.005246 0.048214 -0.016234
-0.006431 -0.010488 -0.003448
0.005130 0.048652 -0.016426
-0.006987 -0.003138 -0.020143
0.005784 0.046235 -0.014960
-0.011549 0.060543 -0.035199
0.008408 0.036295 -0.005645
0.003671 0.024349 -0.004541
0.004317 0.047301 -0.017547
0.002504 0.020877 -0.006369
-0.027983 0.052348 -0.050677
0.005393 0.047602 -0.015854
0.007958 0.036028 -0.006379
-0.013262 0.066800 -0.038636
-0.003451 -0.000376 -0.034164
0.003013 0.029324 -0.011436
-0.003459 -0.001163 -0.033708
-0.022356 0.059077 -0.046765
0.007968 0.031191 -0.004203
-0.042115 0.041683 -0.055207
0.001299 0.033530 -0.019800
-0.010361 0.056088 -0.036355
-0.003402 0.001034 -0.035244
-0.041968 0.041414 -0.054879
-0.013674 0.067118 -0.039207
-0.020700 0.042748 -0.043135
-0.004084 0.042175 -0.026977
-0.010176 0.055717 -0.036125
-0.014611 0.067207 -0.041004
-0.009903 0.013609 -0.038468
0.005854 0.038764 -0.010149
-0.011171 0.060151 -0.034471
0.003840 0.042429 -0.018190
-0.009206 0.045596 -0.032621
0.001931 0.034982 -0.015373
-0.022267 0.053336 -0.046615
-0.001018 0.040098 -0.022414
0.003126 0.012915 0.002869
-0.010805 0.060206 -0.033882
-0.026602 0.054659 -0.049535
-0.013993 0.060789 -0.041904
-0.013446 0.045074 -0.037047
0.002197 0.019990 -0.026054
-0.000214 0.036953 -0.021242
0.005506 0.049802 -0.014592
0.002202 0.057007 -0.023356
-0.003006 -0.006320 -0.035900
-0.032260 0.034821 -0.047034
0.005232 0.041716 -0.015598
-0.006842 -0.009210 -0.044539
0.005329 0.047119 -0.012517
-0.010365 -0.002192 -0.034876
-0.006870 0.053694 -0.030737
-0.008441 0.052351 -0.033610
-0.005249 0.043470 -0.029035
0.006040 0.036696 -0.013145
-0.022083 0.054652 -0.046075
-0.003123 0.039720 -0.025697
-0.002651 0.038848 -0.025466
0.001607 0.060824 -0.021437
-0.015313 0.044648 -0.039064
0.004364 0.022136 -0.000227
-0.048536 -0.003811 -0.044224
-0.014303 0.067491 -0.040275
-0.004992 0.024292 -0.041975
-0.014019 0.067373 -0.039727
-0.007097 0.043676 -0.030850
-0.003786 0.056366 -0.029204
-0.007975 0.058774 -0.031415
0.004045 0.020851 -0.003728
0.000202 0.004924 -0.000538
-0.049225 0.006257 -0.049099
-0.028188 0.051559 -0.050731
-0.004846 0.005333 -0.026953
-0.006047 -0.004828 -0.025141
-0.011568 0.044868 -0.034974
0.006213 0.035632 -0.012863
-0.007249 -0.007436 -0.043178
-0.027392 0.053030 -0.049901
-0.020254 0.046102 -0.043805
-0.010273 0.057471 -0.034901
0.003490 0.049001 -0.020620
0.003382 0.027639 -0.008851
0.003975 0.044401 -0.017982
0.005346 0.044318 -0.015850
-0.004569 0.038051 -0.034732
-0.012885 0.042608 -0.035871
0.005688 0.037725 -0.010990
-0.004789 0.037248 -0.035538
-0.017425 0.065600 -0.042548
-0.009980 0.057193 -0.034903
-0.047927 -0.004242 -0.042234
-0.016084 0.042737 -0.039511
-0.004578 0.041570 -0.027499
-0.001609 0.008592 -0.035317
-0.016066 -0.004869 -0.036555
0.003523 0.021939 -0.004757
-0.013473 0.065080 -0.039814
-0.005074 0.062610 -0.025816
-0.031824 0.040817 -0.052461
-0.011936 0.000982 -0.037760
0.000795 0.037458 -0.018752
-0.011388 0.001040 -0.036973
-0.009818 0.060124 -0.033097
-0.008829 -0.009051 -0.049295
0.007079 0.031265 -0.006244
-0.003509 0.027906 -0.039415
-0.023421 0.049476 -0.049367
-0.003851 0.028036 -0.039698
-0.024430 0.052355 -0.048764
-0.058536 -0.007867 -0.052885
-0.054609 -0.000327 -0.051408
-0.003480 0.042280 -0.026270
-0.012758 0.062841 -0.038499
0.005664 -0.012116 -0.037914
0.003227 0.015501 -0.001132
-0.003298 -0.011854 -0.037358
-0.004270 -0.006522 -0.013734
-0.015139 -0.005973 -0.035939
-0.024314 0.052327 -0.048711
-0.014475 0.043288 -0.037753
-0.056711 -0.010649 -0.048605
-0.008526 0.054118 -0.033426
-0.021443 0.044738 -0.045868
-0.019708 0.052802 -0.044988
-0.003026 0.058762 -0.024446
-0.003379 0.042932 -0.026293
-0.019792 0.044971 -0.041962
-0.030518 0.043409 -0.050461
-0.003934 -0.004220 -0.034754
-0.021294 0.041713 -0.043425
-0.012554 0.060464 -0.036971
0.008119 0.034064 -0.005780
-0.032008 0.037117 -0.046574
-0.033356 0.034063 -0.048920
-0.014663 0.046709 -0.038557
-0.014217 -0.006596 -0.035664
-0.023650 0.040153 -0.045791
-0.031152 0.042363 -0.051076
-0.012977 0.009103 -0.043274
0.001863 0.036346 -0.017767
-0.002251 0.006290 -0.035989
-0.007801 0.037391 -0.039241
0.001034 0.007286 0.001722
-0.012354 -0.001937 -0.036406
-0.004170 0.029762 -0.039835
0.002207 0.013042 -0.021256
-0.014185 -0.010637 -0.052720
-0.031580 0.037392 -0.046083
-0.010246 0.043390 -0.033135
-0.002398 0.037960 -0.025975
0.001553 0.016025 -0.033435
0.002318 0.004185 0.001069
-0.027553 0.048369 -0.049324
0.001682 0.035221 -0.018282
-0.001848 -0.005548 -0.032784
-0.021113 0.051119 -0.047055
-0.008461 0.065924 -0.030501
0.005472 0.042329 -0.011429
-0.054930 -0.000026 -0.052484
-0.000035 -0.018003 -0.030208
-0.010680 -0.009132 -0.050889
-0.046592 -0.002252 -0.051030
-0.017618 -0.004601 -0.045523
-0.013858 -0.010585 -0.052117
-0.015616 0.041607 -0.038673
-0.004241 0.008115 -0.027799
0.001914 0.038619 -0.015852
-0.008452 -0.009990 -0.049166
-0.005170 -0.001784 -0.023642
-0.000456 0.036419 -0.021937
0.001537 0.016049 -0.033558
-0.008549 0.047609 -0.032441
-0.017282 -0.006194 -0.042801
-0.023433 0.038864 -0.044807
-0.018714 0.050406 -0.044053
-0.045570 0.018541 -0.049195
0.001979 0.015203 -0.022757
-0.016228 -0.004896 -0.040486
-0.018865 0.049885 -0.043917
-0.011536 -0.006810 -0.040774
-0.013512 0.005235 -0.044038
-0.008448 -0.017970 -0.030634
-0.009184 0.065866 -0.031789
-0.035338 0.031239 -0.050297
0.003280 0.021022 -0.023086
-0.003577 -0.008450 -0.037076
-0.002489 -0.007537 -0.024817
-0.003087 -0.009882 -0.036586
-0.003608 -0.012770 -0.038910
0.002198 0.051004 -0.023220
-0.003738 -0.012359 -0.038961
-0.007887 0.046500 -0.031384
-0.014068 0.052012 -0.040318
-0.016648 -0.006112 -0.038319
-0.003306 -0.009272 -0.036784
-0.032658 -0.017417 -0.053727
-0.009146 -0.008394 -0.048849
0.001423 0.044783 -0.021721
-0.055087 -0.000400 -0.052577
0.000597 0.026216 -0.033958
0.003860 0.016606 -0.019111
-0.001588 0.027254 -0.037699
-0.007188 0.032177 -0.041131
-0.011409 0.065495 -0.033462
-0.002971 0.000549 -0.032859
-0.022141 0.040839 -0.044348
0.004327 0.039144 -0.014753
-0.007624 -0.010859 -0.051763
0.003937 0.017112 -0.019540
-0.011263 -0.023850 -0.029846
-0.007445 0.062000 -0.030651
0.001890 0.053822 -0.023793
0.000642 0.026156 -0.033880
0.002631 0.053124 -0.022708
-0.008490 -0.006533 -0.003258
-0.002640 0.055408 -0.028589
-0.009213 0.046698 -0.032951
-0.002412 0.043235 -0.024747
-0.009674 0.066624 -0.032777
-0.001665 0.029750 -0.037603
-0.003665 0.037292 -0.029242
-0.010863 -0.010496 -0.050909
-0.005621 0.039594 -0.029508
-0.034611 0.035778 -0.050970
-0.007782 0.064771 -0.029675
-0.010633 0.015475 -0.038913
0.006413 -0.009775 -0.027867
-0.005001 0.024792 -0.042204
-0.005420 0.039505 -0.029259
-0.011156 0.051917 -0.037262
-0.030720 0.048147 -0.052039
0.003547 0.033086 -0.012280
-0.022973 0.047431 -0.047765
-0.011997 0.054529 -0.038118
-0.012868 0.054927 -0.039501
-0.015040 0.052440 -0.041818
-0.008962 0.022187 -0.044750
-0.008501 0.055777 -0.033195
-0.030326 0.049173 -0.051909
0.004114 0.033432 -0.012175
0.000095 0.056395 -0.025436
-0.015344 -0.009488 -0.053603
0.002316 0.014946 -0.022100
-0.016588 -0.002472 -0.038480
-0.008590 0.063600 -0.032035
0.001074 0.044626 -0.022118
-0.002599 0.060686 -0.023998
-0.009019 0.024317 -0.045461
0.001299 0.022849 -0.033594
-0.020723 0.051644 -0.046389
-0.013468 0.006262 -0.044079
-0.002536 0.051744 -0.028925
-0.046047 0.032945 -0.058013
-0.011135 -0.025248 -0.026342
0.007059 -0.008342 -0.024511
0.004199 0.020763 -0.020368
-0.014494 0.057183 -0.042302
0.006921 -0.008397 -0.023764
-0.008098 -0.011230 -0.052144
-0.009038 0.059636 -0.032794
0.002675 0.029139 -0.017565
-0.013142 0.059454 -0.041140
-0.016291 -0.003978 -0.040514
-0.024034 0.046351 -0.048144
-0.012796 0.057911 -0.040165
-0.017169 -0.025851 -0.037283
-0.023565 0.049308 -0.049569
-0.004780 0.003524 -0.024991
-0.016419 0.053491 -0.043005
-0.013029 0.010896 -0.042812
-0.004712 -0.000252 -0.018193
-0.002426 0.057231 -0.024394
0.000957 0.024095 -0.025113
-0.060092 -0.016109 -0.054366
-0.015867 0.062866 -0.042063
-0.008614 0.059356 -0.031956
-0.006914 0.026284 -0.045135
0.003411 0.011548 -0.014725
-0.020091 0.057535 -0.043422
0.000559 0.011014 -0.022372
-0.013139 0.010993 -0.042969
-0.001563 0.006365 -0.018927
-0.008413 0.059627 -0.031762
-0.003612 0.001705 -0.017199
-0.013480 0.056587 -0.040789
-0.004708 0.026968 -0.041734
0.003374 0.025342 -0.022813
-0.012978 0.009226 -0.042993
-0.009537 0.035923 -0.042395
0.000470 0.029025 -0.033083
0.002183 0.019688 -0.025375
-0.018125 0.052680 -0.043830
0.003940 0.012727 -0.013176
-0.002080 0.000518 -0.014299
-0.002415 0.000329 -0.014676
0.003373 0.013644 -0.015712
-0.000405 0.023617 -0.036651
0.004781 0.043196 -0.012758
-0.000068 0.040224 -0.020491
-0.060338 -0.010541 -0.053855
-0.018271 0.052804 -0.043995
0.003822 0.018062 -0.016672
-0.002594 -0.020075 -0.006831
-0.003964 -0.001185 -0.015898
-0.000122 0.009659 -0.001225
0.000001 0.009671 -0.022400
-0.007762 0.057389 -0.031067
-0.004044 -0.001479 -0.016076
-0.014025 0.057874 -0.041789
-0.006503 0.030612 -0.042910
-0.000668 0.053506 -0.026989
