ply
format ascii 1.0
element vertex 182
property float x
property float y
property float z
end_header
-0.014441 0.065518 -0.039613
-0.047530 0.024854 -0.048311
-0.051925 0.014203 -0.048302
0.002292 0.062613 -0.020073
-0.023216 0.055632 -0.044846
-0.038031 0.042517 -0.050835
-0.023505 0.055386 -0.044819
-0.038398 0.041492 -0.050861
0.002461 0.060724 -0.019833
-0.002018 0.061817 -0.026136
0.007568 0.041338 -0.011105
-0.001433 0.063819 -0.025942
0.008050 0.041501 -0.011113
-0.047255 0.030296 -0.052989
0.009587 0.037001 -0.004891
-0.033916 0.045583 -0.050171
-0.034293 0.047842 -0.050497
-0.033772 0.044460 -0.049981
0.010563 0.037182 -0.004541
-0.054811 0.007928 -0.046558
-0.052495 0.008180 -0.046647
-0.003489 0.059940 -0.026201
-0.005239 0.059793 -0.026388
-0.018425 0.009620 -0.014950
-0.042480 0.026575 -0.047905
-0.032999 -0.002753 -0.030796
-0.031470 -0.001236 -0.027360
-0.057989 -0.008866 -0.048086
-0.032062 0.037054 -0.042755
-0.004544 0.059807 -0.026340
-0.030419 -0.003192 -0.025721
-0.000712 0.019250 -0.004135
-0.057276 -0.008957 -0.048136
0.000411 0.019705 -0.003968
-0.021139 -0.000563 -0.014334
-0.006169 0.044965 -0.023323
-0.021675 0.057125 -0.044880
-0.008740 0.043764 -0.023376
-0.005509 0.050927 -0.022979
-0.009148 0.043578 -0.023367
-0.032256 0.005811 -0.030233
-0.016457 0.012660 -0.015037
-0.053842 -0.009539 -0.046144
-0.002167 0.016902 -0.002633
-0.002885 0.017007 -0.002919
-0.042258 0.006715 -0.038978
-0.051904 0.018224 -0.048359
-0.009930 0.043314 -0.023167
-0.042574 0.006780 -0.038967
-0.047830 0.015976 -0.046156
-0.018656 0.004871 -0.015136
-0.039017 0.029673 -0.048206
-0.003853 0.016841 -0.003232
-0.030564 0.038899 -0.043115
-0.006747 0.043207 -0.023193
-0.047233 0.020959 -0.047077
-0.038748 0.030192 -0.048079
-0.046678 0.019886 -0.046925
-0.010950 0.042575 -0.023948
-0.031408 -0.003264 -0.026560
-0.044968 -0.016955 -0.024063
-0.000308 0.034436 -0.011708
-0.000441 0.034065 -0.011452
-0.034629 0.041742 -0.049488
0.008099 0.028568 -0.004353
-0.046330 0.018877 -0.046741
-0.016663 0.007994 -0.014778
-0.043652 0.013546 -0.045278
-0.049286 -0.008073 -0.044562
-0.021907 0.043848 -0.036202
-0.045162 0.013109 -0.044901
-0.044005 0.021707 -0.046702
-0.014573 0.011339 -0.014913
0.009699 0.016076 -0.002555
-0.028837 0.038867 -0.043281
-0.006093 0.056730 -0.024812
-0.045719 0.021021 -0.046855
-0.038872 0.027207 -0.047935
-0.044499 0.023237 -0.046920
-0.016931 -0.014708 -0.000131
-0.017321 -0.014850 -0.000183
0.000584 0.036113 -0.012168
-0.009253 0.045566 -0.023837
-0.032362 0.009494 -0.031989
-0.042892 0.009898 -0.038418
0.002753 0.035399 -0.011879
-0.018478 0.046074 -0.036420
-0.057660 -0.012161 -0.048295
-0.022134 0.037487 -0.023659
-0.022493 0.012034 -0.015004
-0.019203 0.058508 -0.044554
-0.014932 0.014849 -0.015096
-0.003659 0.061929 -0.026470
-0.048401 0.019405 -0.046848
-0.020619 0.014675 -0.014475
0.001233 0.050721 -0.016792
-0.019268 0.018521 -0.012622
-0.003501 0.061690 -0.026425
-0.015129 0.015318 -0.015043
-0.056984 -0.010074 -0.048057
-0.012845 0.022604 -0.009570
-0.007464 0.053202 -0.023352
-0.008260 0.053568 -0.023549
-0.004665 0.058773 -0.026146
-0.043931 -0.007183 -0.024949
-0.007763 0.052179 -0.023069
-0.017000 0.015253 -0.014956
0.002203 0.032850 -0.010694
-0.014401 -0.015580 0.000473
-0.022803 0.016632 -0.014241
-0.006282 0.051974 -0.023274
-0.031252 0.021312 -0.027177
-0.018432 0.051605 -0.037948
-0.017252 0.015427 -0.014918
-0.012855 0.023118 -0.009504
-0.042317 -0.005033 -0.026739
-0.020320 0.051783 -0.041663
-0.022952 0.041967 -0.035799
-0.059094 -0.001197 -0.047774
-0.023774 0.051769 -0.041701
-0.015987 -0.015925 -0.000036
-0.050933 -0.005035 -0.043726
-0.049142 -0.015135 -0.024016
-0.047561 0.004551 -0.040301
-0.056852 -0.013047 -0.048230
-0.044067 -0.019024 -0.023819
-0.009392 -0.013852 -0.000492
-0.014643 0.013577 -0.015074
-0.043707 -0.013383 -0.024255
-0.006597 0.059731 -0.026005
-0.016064 0.015995 -0.014699
-0.007257 -0.014344 -0.002261
-0.010768 0.054175 -0.024631
-0.020948 0.009057 -0.015417
-0.041805 0.008408 -0.038977
-0.014433 0.020203 -0.010688
-0.040892 0.008982 -0.039009
-0.009717 0.024453 -0.008295
-0.007702 0.049033 -0.022788
-0.019659 0.011844 -0.014852
-0.013494 0.030631 -0.013185
-0.010634 0.044049 -0.023733
-0.015190 0.064978 -0.040080
-0.010469 -0.011846 0.000151
-0.013658 0.024833 -0.009448
-0.001067 0.023047 -0.005413
-0.031641 0.045860 -0.049998
-0.026483 -0.017305 -0.001896
-0.049726 -0.003219 -0.043546
-0.016982 0.061618 -0.039732
0.007152 0.025617 -0.003788
0.007167 0.025821 -0.003830
-0.020504 0.036953 -0.023004
-0.028576 0.001759 -0.030177
-0.008426 0.022218 -0.007350
-0.010645 0.051170 -0.023801
-0.009794 0.051910 -0.023349
-0.050701 0.001844 -0.042728
-0.044341 0.008691 -0.038737
-0.011776 0.026980 -0.009253
-0.048626 -0.007730 -0.024157
-0.006498 0.023229 -0.007114
-0.008782 0.028254 -0.009318
-0.045701 0.004426 -0.040291
-0.019169 -0.017663 -0.000316
-0.010584 0.050904 -0.023721
-0.046756 -0.010992 -0.024026
-0.060465 -0.013852 -0.047674
-0.011424 0.032958 -0.014773
-0.045889 0.025681 -0.047239
-0.008780 0.033203 -0.014467
-0.009809 0.027211 -0.008953
-0.009110 0.015076 -0.006372
-0.042203 -0.008398 -0.023726
-0.007446 0.025586 -0.007879
-0.047960 -0.021417 -0.022712
-0.003975 0.026568 -0.006886
-0.009198 0.060418 -0.025904
-0.040561 0.011010 -0.038684
-0.013747 0.041315 -0.023631
-0.002791 0.019708 -0.004377
0.003208 0.046030 -0.011126
