ply
format ascii 1.0
element vertex 228
property float x
property float y
property float z
end_header
0.004886 0.040326 -0.009116
0.004962 0.040694 -0.008697
0.002313 0.061536 -0.020224
0.004559 0.039363 -0.011047
-0.007258 0.064616 -0.029111
0.002361 0.060829 -0.020411
0.004379 0.049721 -0.017366
0.002933 0.052030 -0.015176
0.009180 0.037375 -0.004657
0.000766 0.035054 -0.021175
0.000764 0.034869 -0.021548
0.004996 0.022493 0.000824
0.005487 0.024113 0.002847
-0.005071 0.004672 -0.029997
0.008907 0.033474 -0.003034
0.000431 0.009235 -0.001934
0.002516 0.029540 -0.014437
0.008971 0.033794 -0.002360
0.001950 0.011619 0.007158
0.008105 0.031913 -0.004666
-0.013184 0.066447 -0.034375
0.008780 0.033135 -0.003431
-0.006287 0.061321 -0.024203
0.002275 0.026150 -0.012254
-0.006228 0.060555 -0.024540
-0.013110 0.065628 -0.034674
-0.013114 0.067603 -0.033889
0.003426 0.019232 -0.004715
0.002319 0.013360 -0.000110
0.004797 0.018113 0.002835
-0.005012 0.005510 -0.029164
0.005484 0.045514 -0.014447
0.002006 0.013831 0.006435
-0.037544 0.018669 -0.056034
0.001285 0.033545 -0.019583
0.000484 0.038209 -0.018891
0.005904 0.026979 -0.002452
0.009779 0.035460 -0.008213
-0.008644 -0.002882 -0.020083
0.004634 0.042220 -0.017758
0.004631 0.046764 -0.017710
0.001319 0.033219 -0.019364
0.004915 0.047510 -0.015701
0.002041 0.013321 0.007060
-0.014451 0.067040 -0.041024
0.006695 0.028705 -0.003371
0.005278 0.044472 -0.014873
0.003081 0.020803 -0.006623
0.004685 0.045758 -0.017427
0.004704 0.041425 -0.012212
0.006886 0.029605 -0.003835
-0.027368 0.052358 -0.050982
0.002649 0.029178 -0.011270
0.007427 0.030355 -0.004307
-0.006295 -0.003358 -0.023803
0.009151 0.034663 -0.009213
-0.008009 0.045833 -0.032946
-0.011475 0.060670 -0.034893
0.007641 0.031747 -0.006408
0.003881 0.019285 -0.000939
0.006623 0.029461 -0.005672
0.002152 0.044810 -0.029278
0.008705 0.034051 -0.006036
0.005761 0.022485 -0.001593
0.005815 0.036288 -0.012910
0.004804 0.024955 -0.000507
-0.001077 0.040112 -0.022312
0.005429 0.041972 -0.014948
-0.025784 0.054815 -0.049679
-0.008663 0.052727 -0.033513
0.005169 0.026803 -0.000450
0.003390 0.019907 -0.026408
0.003596 0.020752 -0.003524
-0.002984 0.039588 -0.025990
0.000205 0.037036 -0.021234
0.002519 0.013239 0.001898
0.004178 0.054741 -0.021136
-0.006223 -0.007609 -0.038621
0.005643 0.035085 -0.012489
-0.033481 0.034982 -0.047098
-0.007518 0.054107 -0.030557
-0.020301 0.041312 -0.040743
-0.003249 -0.006288 -0.036435
-0.010219 0.057461 -0.035141
0.004461 0.049600 -0.020237
-0.003289 -0.007058 -0.036721
0.004965 0.044550 -0.015769
-0.012262 -0.010472 -0.002143
-0.008913 0.045657 -0.035889
-0.027621 0.051692 -0.050970
-0.003298 0.042331 -0.025932
-0.006399 -0.004827 -0.025080
0.003722 0.017299 -0.002528
0.004163 0.027724 -0.008184
-0.005634 0.035084 -0.037594
0.004945 0.049551 -0.014213
-0.005362 -0.003742 -0.014902
-0.009137 0.066649 -0.031696
0.000679 0.037438 -0.018163
0.005722 0.029942 -0.009367
0.003759 0.010176 0.004490
0.002639 0.030592 -0.012127
0.003196 0.023519 -0.006921
-0.003403 0.043123 -0.025925
-0.018709 -0.002963 -0.044156
-0.008198 0.052282 -0.032519
-0.005153 0.003987 -0.028528
-0.003516 0.038231 -0.034814
-0.007061 -0.008989 -0.048771
0.007019 -0.015555 -0.026366
0.002172 0.016533 -0.023998
-0.050961 -0.007525 -0.054252
-0.003564 0.027811 -0.039653
-0.005258 -0.006181 -0.007748
-0.009292 0.055771 -0.033214
0.001232 0.036416 -0.016988
-0.017821 0.001616 -0.044934
0.002431 0.027727 -0.015182
0.002542 0.029741 -0.013867
-0.003059 -0.003955 -0.032488
-0.033212 0.036987 -0.049855
-0.013654 -0.018733 -0.006055
0.005522 0.023983 -0.002188
0.007567 0.030686 -0.002130
0.001321 0.035031 -0.017405
-0.004351 0.008120 -0.030776
-0.003013 -0.004087 -0.032265
-0.002651 -0.004828 -0.031594
-0.001751 0.007555 -0.033736
-0.033671 0.034356 -0.048797
-0.005469 -0.005693 -0.014708
0.003534 0.017283 -0.004083
-0.001086 0.038097 -0.026355
-0.003124 0.000806 -0.030752
-0.001778 -0.005582 -0.032929
-0.001294 0.038798 -0.025792
0.007220 -0.012173 -0.026920
0.000247 0.036517 -0.021982
0.002470 0.048444 -0.030540
0.002128 0.016095 -0.033818
-0.007051 -0.006991 0.003470
-0.001374 -0.007413 -0.033154
-0.002041 0.038762 -0.026223
-0.003837 0.039237 -0.034438
-0.003994 0.007436 -0.031421
0.001849 0.013808 -0.023139
0.007211 -0.011958 -0.027611
0.006828 -0.008919 -0.028841
-0.004049 0.039241 -0.034757
-0.006358 -0.000511 -0.021351
0.002140 0.013958 -0.022709
-0.001976 0.005780 -0.036061
0.002915 0.052114 -0.019033
0.006895 -0.011144 -0.029651
0.003474 0.016246 -0.018742
-0.008168 -0.020763 -0.035620
0.002325 0.023604 -0.012072
0.005524 0.045624 -0.013950
-0.034727 0.035599 -0.043997
-0.006059 -0.008227 -0.041605
-0.009227 0.055761 -0.032772
-0.001072 0.029855 -0.037613
-0.005140 -0.010168 -0.037533
-0.003499 -0.007457 -0.024823
0.005959 -0.014947 -0.022472
-0.003571 -0.007444 -0.024489
-0.002634 -0.006976 -0.028786
0.002226 -0.011100 -0.030860
-0.007370 0.064715 -0.030048
-0.016658 -0.002289 -0.043083
0.001402 0.026623 -0.034362
0.007292 -0.010960 -0.025130
-0.001050 0.029809 -0.037595
-0.003837 -0.004921 -0.007157
-0.007319 0.053239 -0.029199
-0.007856 0.048085 -0.037642
-0.013718 -0.025268 -0.035107
-0.002398 -0.007700 -0.025416
0.007266 -0.013847 -0.028734
-0.008698 -0.006106 -0.040706
-0.003796 0.002091 -0.036273
-0.002522 -0.007872 -0.025811
-0.006119 0.038787 -0.037088
0.004238 0.015571 -0.015011
-0.012030 -0.023766 -0.034793
0.001578 0.013225 -0.026326
-0.005435 0.039613 -0.030388
-0.001731 -0.008344 -0.035258
0.003588 0.010902 -0.011567
-0.033683 0.036561 -0.045887
-0.007829 -0.006036 -0.042447
0.004321 0.020120 -0.020144
0.004574 -0.018335 -0.025157
0.004534 0.018179 -0.017114
0.007055 -0.012397 -0.030025
-0.000153 0.031597 -0.035150
-0.000658 0.031994 -0.035569
-0.003445 -0.007935 -0.026704
0.004385 0.014467 -0.008198
-0.007312 0.052169 -0.030553
-0.004851 0.026898 -0.041826
0.001125 0.029013 -0.033076
0.007041 -0.010639 -0.023315
-0.001240 0.033094 -0.032203
-0.008640 0.037455 -0.041016
-0.002152 -0.005654 -0.030679
-0.015451 0.062054 -0.042206
0.000342 0.009739 -0.021558
0.003870 -0.012898 -0.019677
-0.002068 -0.008942 -0.013911
-0.000427 0.028980 -0.036420
0.004356 0.019979 -0.019859
0.000585 0.009873 -0.021367
0.002043 0.022786 -0.033620
0.002520 0.024828 -0.027207
0.003506 0.020321 -0.026895
-0.029177 -0.016837 0.017525
-0.035603 0.026857 -0.048917
0.003653 0.009770 -0.012726
-0.008504 0.036048 -0.042084
0.003199 0.025060 -0.022577
-0.001095 0.013961 -0.035952
-0.016445 -0.028141 -0.026477
0.002523 0.013468 -0.029144
-0.017770 -0.028520 -0.041654
0.004158 0.021610 -0.015394
-0.011053 0.062792 -0.032653
0.002295 0.027004 -0.028332
