ply
format ascii 1.0
element vertex 385
property float x
property float y
property float z
end_header
0.002221 0.063032 -0.020636
-0.012089 0.065970 -0.035905
0.005933 0.048740 -0.016905
-0.012069 0.065452 -0.036219
-0.032905 0.044993 -0.051927
-0.033159 0.045550 -0.052122
-0.007565 0.065095 -0.029512
0.005453 0.052252 -0.017391
0.007355 0.041249 -0.011036
0.005266 0.051943 -0.017535
-0.033522 0.046483 -0.052341
0.005716 0.052745 -0.017196
-0.002711 0.062758 -0.025733
-0.002806 0.061626 -0.025818
0.000172 0.034934 -0.021165
0.007807 0.041794 -0.010775
-0.001394 0.033615 -0.022015
-0.002846 0.060902 -0.025934
0.000011 0.034745 -0.021361
-0.002535 0.064155 -0.025480
-0.033889 0.047725 -0.052767
-0.054450 0.008158 -0.050196
0.005928 0.040125 -0.011979
-0.022340 0.057181 -0.046070
-0.022134 0.056708 -0.045941
-0.052601 0.008183 -0.048840
0.001690 0.020944 -0.006843
-0.012033 0.068027 -0.035001
0.000717 0.037565 -0.019842
-0.055634 0.008348 -0.050984
-0.012016 0.063493 -0.036860
-0.049443 0.024554 -0.051299
-0.038250 0.042318 -0.052566
-0.043653 0.037049 -0.056425
-0.013978 0.066981 -0.039801
0.003256 0.032172 -0.016816
-0.058895 -0.007984 -0.048651
-0.037838 0.041557 -0.052365
-0.046614 0.030544 -0.056528
-0.047263 0.030961 -0.057257
0.004136 0.024843 -0.005219
0.007733 0.039453 -0.010667
-0.042696 0.041138 -0.054109
-0.040386 -0.015021 -0.046146
-0.040114 -0.015005 -0.045910
0.002715 0.020875 -0.006035
-0.014430 0.067161 -0.040734
-0.023689 0.055687 -0.047930
0.005647 0.048802 -0.017187
-0.042948 0.041382 -0.054276
-0.023842 0.055422 -0.048182
0.008183 0.038623 -0.010321
-0.032274 0.042954 -0.051158
-0.033017 0.042375 -0.051554
-0.001492 0.036618 -0.023600
-0.031051 0.000577 -0.038601
-0.024114 -0.002027 -0.048642
-0.002834 -0.006305 -0.035235
-0.003956 0.041694 -0.027733
-0.009389 0.012769 -0.038401
-0.055524 0.001421 -0.049052
-0.026399 0.054616 -0.050071
-0.050605 0.007126 -0.047452
0.003081 -0.015526 -0.013488
-0.007197 -0.009393 -0.043713
-0.013783 0.061669 -0.041967
-0.000584 0.040082 -0.022976
-0.005366 -0.007111 -0.038599
0.002953 -0.015541 -0.013566
-0.031451 0.035013 -0.047634
-0.006062 0.035456 -0.033870
-0.040930 0.024711 -0.050955
-0.005981 0.053771 -0.031443
0.002620 0.014530 -0.002613
-0.011819 -0.001651 -0.033938
-0.009889 0.045812 -0.033439
-0.040596 0.026240 -0.051271
0.001893 0.059200 -0.022991
-0.002576 0.039011 -0.025459
-0.028078 0.051909 -0.050213
0.004695 0.047549 -0.017740
-0.011228 -0.002312 -0.033915
0.003167 0.035027 -0.017600
-0.010592 -0.003370 -0.033913
0.006297 0.048622 -0.016091
-0.008115 0.052156 -0.033820
0.002022 0.061638 -0.020621
-0.020270 0.042692 -0.043153
0.006543 0.037590 -0.013510
-0.042191 0.026198 -0.053341
0.006660 0.036746 -0.013553
0.003963 0.052492 -0.018370
0.002909 0.035121 -0.018216
-0.015370 0.044473 -0.039018
-0.019204 0.041855 -0.041926
0.005953 0.047425 -0.012761
-0.043810 0.020182 -0.051839
-0.005571 -0.004871 -0.038523
-0.002361 0.038354 -0.025200
-0.027357 0.042286 -0.050494
-0.020996 0.044408 -0.044300
-0.006931 0.065845 -0.029032
-0.003929 0.059722 -0.026914
-0.009528 0.061028 -0.034794
0.003249 0.048890 -0.018852
0.006925 0.038003 -0.011573
-0.060894 -0.007307 -0.050892
-0.005862 0.063090 -0.027667
-0.003831 0.056952 -0.027614
-0.041116 0.040814 -0.053199
-0.007136 0.043787 -0.030975
-0.040709 0.022073 -0.050489
-0.015524 -0.002849 -0.044456
-0.023293 0.049678 -0.049524
-0.013212 0.045007 -0.037299
-0.003318 0.027978 -0.039588
-0.012391 0.042718 -0.036303
-0.019825 0.046482 -0.044099
-0.061306 -0.007373 -0.051332
-0.038149 0.025350 -0.051562
0.003724 0.060595 -0.018872
-0.040039 -0.019684 -0.044217
-0.005275 0.043418 -0.029396
0.002912 0.060296 -0.019307
-0.011054 0.044998 -0.035601
0.004652 0.024910 -0.003175
-0.025621 0.052337 -0.049766
-0.004772 0.043717 -0.029040
-0.046426 0.015380 -0.050569
0.001854 0.058094 -0.019627
-0.046806 0.015551 -0.050821
-0.013230 0.018253 -0.046792
-0.013817 0.057741 -0.041442
-0.004238 0.041742 -0.028069
-0.012251 0.060336 -0.036454
-0.030863 0.037487 -0.047215
0.001568 0.033375 -0.020272
-0.038716 0.041315 -0.052652
0.006335 0.045095 -0.012309
-0.030279 0.039223 -0.048985
-0.033138 0.034124 -0.049105
-0.014702 -0.005621 -0.035547
-0.033213 0.034009 -0.049163
-0.004830 -0.000016 -0.035266
-0.024502 0.053220 -0.048715
0.001447 0.033650 -0.020370
-0.013014 0.063257 -0.038075
-0.024899 0.006871 -0.042684
-0.044007 0.043155 -0.055697
-0.007675 0.055743 -0.034010
-0.015814 0.046557 -0.039759
-0.026613 0.039985 -0.046931
-0.054322 0.011633 -0.047880
-0.029856 0.010529 -0.052471
-0.033870 0.044184 -0.052425
-0.008140 0.065971 -0.030242
-0.026812 0.040670 -0.047210
-0.026499 0.039345 -0.046606
0.001694 -0.017404 -0.014106
-0.014631 0.045465 -0.038397
-0.033905 0.037192 -0.049806
-0.021761 0.044651 -0.045440
-0.014311 -0.002222 -0.034512
-0.014376 0.043341 -0.037891
-0.016754 -0.006508 -0.037966
-0.021236 0.051060 -0.047145
-0.007305 -0.006612 -0.041599
-0.036994 0.035582 -0.053708
-0.021214 0.051132 -0.047135
-0.050531 -0.004104 -0.052097
-0.018618 0.052508 -0.045514
-0.053042 -0.007290 -0.051022
-0.021304 0.044640 -0.044619
-0.035074 0.029566 -0.050084
-0.053177 0.020500 -0.052539
-0.030624 0.049660 -0.050861
-0.061011 -0.005110 -0.048214
0.004221 0.042604 -0.012840
-0.044196 0.016952 -0.050231
-0.057160 -0.000750 -0.048811
-0.018243 -0.006914 -0.048392
-0.007284 -0.010669 -0.051246
-0.017319 -0.008579 -0.037577
-0.001090 -0.012070 -0.035244
-0.050729 0.018888 -0.049947
-0.005736 -0.010320 -0.047505
-0.031088 0.005654 -0.045520
0.002097 0.036619 -0.019037
-0.031359 0.048499 -0.050613
-0.025130 0.038637 -0.046023
-0.027095 0.037337 -0.046519
-0.010497 -0.009077 -0.046465
-0.036340 0.028363 -0.050613
-0.038604 0.037127 -0.056081
-0.024086 0.039947 -0.045654
-0.023380 0.038972 -0.044920
-0.007929 -0.011059 -0.051254
-0.013542 -0.010702 -0.050176
-0.004719 0.059697 -0.027609
0.000563 0.026088 -0.033406
-0.052184 0.013078 -0.047165
-0.022265 0.040955 -0.044083
-0.048789 0.010658 -0.046234
-0.030684 0.043231 -0.050126
-0.004494 0.049827 -0.030549
-0.009202 0.064975 -0.032788
-0.004154 -0.006332 -0.037518
-0.047183 0.026111 -0.052764
0.001087 0.018377 -0.034361
-0.051951 0.010459 -0.048016
-0.008135 -0.011664 -0.051679
-0.010093 0.043252 -0.033627
-0.043532 0.023596 -0.052086
-0.001590 0.029899 -0.037680
-0.001736 0.029927 -0.037861
-0.036709 0.028367 -0.050860
-0.005932 -0.010967 -0.049300
-0.050783 0.016844 -0.049660
-0.009657 0.042042 -0.032827
-0.016444 0.051720 -0.043120
-0.003248 0.036918 -0.027011
-0.019154 0.044728 -0.042737
0.001702 -0.015466 -0.014399
-0.010480 0.066022 -0.034310
-0.006815 0.032411 -0.041046
-0.041851 0.030581 -0.054401
-0.010227 -0.009592 -0.046412
-0.018302 0.045854 -0.042081
-0.040691 0.026305 -0.051228
-0.010843 0.002441 -0.033818
-0.012268 0.025805 -0.047998
-0.040915 0.026299 -0.051117
-0.057883 -0.000479 -0.049665
-0.002045 -0.011677 -0.037060
-0.000449 -0.006776 -0.033089
-0.014564 -0.012698 -0.053791
-0.012904 0.053438 -0.040156
-0.001511 -0.012602 -0.036543
-0.031770 0.038761 -0.049281
-0.030382 0.049992 -0.050991
-0.018289 0.063439 -0.044400
-0.051582 -0.015396 -0.048126
-0.036161 0.032378 -0.051440
-0.008231 0.064404 -0.030852
0.001347 -0.015181 -0.014642
0.002282 0.051178 -0.022864
-0.032653 0.040189 -0.052388
0.000822 0.060027 -0.024207
-0.031142 0.043277 -0.050418
-0.012484 0.023734 -0.047956
-0.001398 -0.018066 -0.027774
-0.043587 0.038820 -0.056475
-0.037562 0.029858 -0.051809
-0.049770 -0.002143 -0.052652
0.002383 0.052982 -0.021784
0.004958 -0.013210 -0.012248
-0.001340 0.057478 -0.025784
-0.011241 0.060150 -0.035829
-0.005393 0.029902 -0.042359
-0.014233 0.014389 -0.047180
-0.043916 0.033201 -0.056528
-0.023585 0.042612 -0.045955
0.000729 0.004854 -0.008139
0.002238 0.002545 -0.005981
-0.013676 0.051508 -0.040430
0.001923 0.045027 -0.021296
0.002236 0.053893 -0.024235
-0.035248 0.028689 -0.050091
-0.059790 -0.016276 -0.055234
-0.014194 0.018508 -0.047624
-0.002321 0.042369 -0.025775
-0.058055 -0.000754 -0.049660
0.001713 0.044621 -0.021673
-0.037705 0.040332 -0.052641
-0.061992 -0.009620 -0.052013
-0.036239 0.026864 -0.050464
-0.030232 0.044389 -0.050060
-0.034685 0.035742 -0.050164
-0.003579 -0.008171 -0.037127
-0.011627 -0.022568 -0.038132
-0.003927 0.002062 -0.019383
-0.036539 0.044385 -0.051797
-0.055903 -0.016983 -0.048732
-0.034459 0.029381 -0.049575
-0.001304 -0.010041 -0.035132
-0.014624 0.004650 -0.046159
-0.022437 0.044901 -0.046621
-0.018504 0.021121 -0.051450
-0.008762 -0.013001 -0.052464
-0.044089 0.021605 -0.052371
-0.000600 0.006845 -0.017167
0.000201 0.056356 -0.025897
-0.003525 -0.023141 -0.024982
-0.003888 -0.009163 -0.037249
-0.013731 0.048102 -0.038449
-0.014869 0.052480 -0.041678
-0.012109 0.019152 -0.046597
0.000980 0.021061 -0.033647
0.001357 0.058674 -0.024707
-0.028820 0.036606 -0.046529
0.000401 0.003198 -0.008272
-0.022700 0.047719 -0.047738
0.004979 -0.017106 -0.037287
-0.030127 0.050347 -0.051095
-0.002148 -0.009656 -0.034661
-0.012432 0.055946 -0.039953
-0.016822 0.045762 -0.040505
-0.000673 0.029332 -0.036433
-0.010947 0.052355 -0.037120
-0.002258 0.002986 -0.015373
-0.035692 0.037046 -0.052280
-0.016402 -0.011291 -0.054323
-0.011033 0.052390 -0.037852
-0.007000 0.022821 -0.043331
-0.024868 0.042862 -0.046793
-0.007786 0.056305 -0.034148
-0.020930 0.058113 -0.044925
-0.017178 0.018247 -0.050395
-0.013040 0.047096 -0.037412
-0.004492 0.026973 -0.041078
-0.012919 -0.012002 -0.052415
-0.043816 0.037676 -0.056660
-0.013292 0.059776 -0.040925
-0.015178 0.063026 -0.042488
-0.005011 0.039750 -0.028544
-0.011612 0.055090 -0.038176
-0.012877 0.047443 -0.037402
-0.008497 0.022546 -0.045107
-0.019721 0.014163 -0.051963
-0.044726 0.021167 -0.052561
-0.005293 0.039670 -0.028865
-0.037828 0.040212 -0.052639
-0.013266 0.048550 -0.038151
-0.010185 0.021749 -0.046238
0.000204 -0.007233 -0.032094
-0.008037 0.020451 -0.043541
-0.016339 0.015091 -0.049981
-0.008506 0.062041 -0.034130
-0.016260 0.051971 -0.042887
-0.010134 0.022250 -0.046406
-0.000348 0.053282 -0.027274
-0.009964 0.035780 -0.041896
-0.035668 0.032363 -0.051136
-0.000066 0.047435 -0.027054
-0.010427 0.021651 -0.046405
-0.004278 0.011621 -0.039920
-0.016942 0.048937 -0.042247
-0.054917 -0.018181 -0.051073
-0.008577 -0.009889 -0.045384
-0.037594 0.031269 -0.052006
0.001048 0.006573 -0.007551
-0.027402 0.042224 -0.050545
-0.014593 0.057797 -0.042365
-0.013750 0.055460 -0.041095
-0.006539 0.029896 -0.043214
0.000658 0.029080 -0.033079
-0.039127 -0.014719 -0.044993
-0.009425 -0.010849 -0.050838
0.000532 0.041608 -0.021489
-0.004235 -0.009921 -0.037637
-0.013422 0.020586 -0.047676
-0.012797 0.011229 -0.041129
-0.045649 0.033164 -0.058222
-0.037528 0.033408 -0.053246
-0.037421 0.033659 -0.053195
0.005423 -0.015055 -0.011925
-0.009075 0.061851 -0.034917
-0.014244 0.008532 -0.046089
-0.022822 -0.029151 -0.032312
-0.004297 -0.005159 -0.037057
-0.000551 0.022799 -0.037439
-0.004218 -0.010104 -0.037090
-0.012772 0.053469 -0.040058
-0.006726 -0.014171 -0.050841
-0.024285 0.043855 -0.046942
-0.042233 0.032119 -0.054509
-0.001461 0.030996 -0.022218
-0.058483 -0.014163 -0.054116
-0.000710 0.057113 -0.025543
-0.037456 0.033732 -0.053227
-0.017180 0.053034 -0.044737
-0.007337 0.026258 -0.044756
-0.041732 0.030888 -0.054326
-0.000201 0.056545 -0.025745
-0.037246 0.038290 -0.053622
