ply
format ascii 1.0
element vertex 98
property float x
property float y
property float z
end_header
-0.007168 0.065015 -0.028654
-0.005534 -0.012102 -0.007441
0.001551 0.014032 0.007957
0.001515 0.014650 0.007869
-0.003232 0.001852 0.010053
0.001240 0.011914 0.009166
0.001120 0.012018 0.009580
-0.002929 0.002030 0.009335
0.003903 0.021897 -0.009826
0.001772 0.009250 -0.001760
-0.011882 0.063424 -0.037264
0.002651 0.014037 0.005743
0.002031 0.013150 -0.000004
-0.004513 -0.000914 0.010376
0.001833 0.011314 0.007240
0.002000 0.011400 0.006863
-0.003873 0.005918 -0.029346
0.003862 0.020935 -0.006553
-0.002154 -0.001546 -0.033328
-0.004258 -0.008307 -0.006816
-0.011275 -0.018125 -0.053112
-0.004443 0.004500 -0.028006
-0.007604 -0.004575 -0.023556
0.005775 0.028431 -0.005680
0.004029 0.019804 -0.025516
-0.019021 0.036631 -0.022923
-0.005535 -0.007632 -0.039676
-0.018032 -0.004789 -0.048362
0.003601 0.026295 -0.007712
-0.002631 0.003985 -0.032543
0.006207 -0.014279 -0.022449
-0.008620 -0.006194 0.004056
-0.006686 -0.002872 -0.024980
-0.004251 0.004033 -0.028572
-0.013148 0.065911 -0.038599
-0.005098 -0.006829 -0.005168
0.007687 -0.015379 -0.026733
0.002920 0.016590 -0.024173
0.000978 0.001751 -0.001351
0.003547 0.023527 -0.006860
-0.005817 -0.005133 -0.038190
-0.002081 -0.004748 -0.031814
0.007796 -0.011749 -0.026401
-0.016592 -0.020905 -0.010975
-0.002644 0.008630 -0.030826
-0.009360 -0.020684 -0.048592
-0.002828 0.008477 -0.030520
-0.009535 -0.020856 -0.048254
-0.002097 -0.003481 -0.032568
-0.002704 0.007822 -0.032144
-0.005824 -0.000532 -0.024681
-0.002726 0.000951 -0.030741
-0.000453 -0.007125 -0.033418
-0.001435 -0.005383 -0.033166
-0.013070 0.059631 -0.042527
0.005107 -0.014316 -0.016233
0.007995 -0.011655 -0.027499
-0.005241 -0.001604 -0.026766
-0.011120 -0.015079 -0.053805
0.004328 -0.018843 -0.026108
-0.002143 0.009583 -0.033293
-0.004168 -0.007622 -0.025395
-0.002237 0.009623 -0.033508
-0.013982 -0.019121 -0.050708
-0.004785 -0.005667 -0.027184
-0.004658 -0.005573 -0.027438
-0.000372 0.005003 0.001090
0.007879 -0.010794 -0.025059
-0.004434 -0.005455 -0.027783
-0.010069 -0.022939 -0.044330
0.005012 -0.010680 -0.015511
-0.002696 0.005069 -0.032004
0.008293 -0.013501 -0.028237
0.002168 0.015112 -0.027054
-0.002553 0.001131 -0.033239
0.008066 -0.016351 -0.027645
-0.003829 -0.000829 -0.028734
0.006151 -0.012089 -0.020464
-0.002296 -0.007934 -0.026738
-0.016760 -0.005480 0.016707
0.006919 -0.010639 -0.023186
-0.004042 -0.001004 -0.028184
0.002213 0.006261 -0.002020
0.006105 -0.009251 -0.030588
0.005238 0.023304 -0.018536
-0.005183 0.007467 -0.025456
0.005041 0.022595 -0.018697
0.007710 -0.007725 -0.023062
0.005964 0.016022 -0.008465
0.004540 0.014742 -0.006126
-0.017261 -0.025255 -0.012852
-0.004403 -0.008020 -0.021902
0.004279 0.020539 -0.020175
0.005887 -0.009043 -0.022437
0.004235 -0.009262 -0.013946
0.004097 0.019946 -0.019758
0.005649 -0.010693 -0.017848
0.000452 0.002543 -0.003154
